ply
format ascii 1.0
element vertex 1265
property float x
property float y
property float z
property uchar red
property uchar green
property uchar blue
end_header
0.432910 0.275752 -0.367064 76 0 153
-0.532818 0.260812 -0.336054 153 76 0
-0.156710 -0.169523 0.170867 0 127 127
0.021674 -0.169523 0.426157 153 0 76
0.100589 -0.169523 0.480324 76 0 153
-0.328003 -0.133068 -0.230519 153 76 0
0.005503 -0.222156 0.621265 153 0 76
-0.663507 -0.172917 0.667706 153 0 76
-0.572010 -0.222156 0.075554 153 0 76
-0.106594 0.067275 -0.311205 76 0 153
-0.556111 -0.222156 0.622326 153 0 76
-0.463622 -0.222156 0.604577 153 0 76
0.369823 -0.222156 -0.062992 153 0 76
0.147789 -0.061493 -0.276703 76 0 153
0.181791 -0.175931 0.146668 0 127 127
-0.021446 -0.169523 0.038531 153 0 76
-0.277139 0.464810 -0.417719 76 0 153
0.171126 -0.203718 0.697990 153 0 76
-0.007032 -0.169523 0.614536 76 0 153
0.270066 -0.222156 0.446108 153 0 76
0.621566 -0.188053 -0.180561 153 0 76
-0.218276 0.098049 -0.319451 76 0 153
0.437589 -0.011015 -0.263221 153 76 0
-0.154380 -0.222156 0.290648 153 0 76
-0.376382 -0.175931 0.256429 0 127 127
0.557342 0.515138 -0.404197 153 76 0
-0.085177 0.222673 -0.352842 76 0 153
-0.037793 -0.222156 0.081010 153 0 76
-0.213314 -0.169523 0.692027 153 0 76
0.624432 0.414343 -0.377190 76 0 153
-0.605291 0.283819 -0.369225 76 0 153
0.575709 0.274011 -0.339590 153 76 0
-0.342861 -0.169523 0.242520 0 127 127
0.003709 -0.169523 0.533586 76 0 153
-0.114880 -0.169523 0.489585 76 0 153
-0.330925 0.045850 -0.305464 76 0 153
-0.621977 -0.208900 -0.213101 76 0 153
-0.033004 -0.175713 -0.100255 153 0 76
0.093770 0.264569 -0.364067 76 0 153
0.480838 0.257199 -0.335086 153 76 0
-0.053661 -0.169523 0.447069 76 0 153
0.242953 -0.174624 -0.243385 76 0 153
-0.238837 -0.222156 -0.008462 153 0 76
0.242851 0.240718 -0.330670 153 76 0
0.191198 0.400550 -0.400502 76 0 153
-0.176649 -0.132009 -0.230802 153 76 0
0.102562 0.357126 -0.388867 76 0 153
0.294984 -0.222156 0.180530 153 0 76
0.054811 0.154507 -0.334578 76 0 153
0.283310 -0.175931 0.054360 153 0 76
0.382132 0.122711 -0.326058 76 0 153
0.146977 0.338402 -0.356843 153 76 0
0.367599 0.537879 -0.410290 153 76 0
-0.300975 -0.031874 -0.257632 153 76 0
-0.333733 -0.175931 0.054030 0 127 127
-0.519005 -0.222156 0.086477 153 0 76
-0.162556 0.126904 -0.300175 153 76 0
0.027570 -0.209026 -0.208932 76 0 153
-0.465502 -0.039809 -0.255506 153 76 0
-0.607773 -0.169523 0.027859 153 0 76
-0.647790 -0.069567 -0.247533 76 0 153
0.172108 -0.180639 0.699700 153 0 76
-0.176720 0.063991 -0.283318 153 76 0
-0.669611 -0.172876 -0.099005 153 0 76
-0.210690 -0.195896 -0.232217 76 0 153
-0.299352 -0.169523 0.410096 153 0 76
-0.487574 -0.222156 0.111645 153 0 76
-0.579901 -0.020396 -0.260707 153 76 0
-0.653670 -0.186023 0.682190 153 0 76
0.468011 -0.184268 -0.209924 76 0 153
0.589354 0.205125 -0.348140 76 0 153
0.360062 -0.222156 0.596082 153 0 76
0.636005 -0.169523 -0.032621 153 0 76
0.186434 -0.222156 0.215715 153 0 76
-0.408719 -0.180093 -0.149068 153 0 76
0.308802 -0.222156 0.208489 153 0 76
0.327118 -0.222156 -0.122828 153 0 76
-0.623100 0.397026 -0.372550 153 76 0
0.036160 0.026554 -0.300294 76 0 153
0.531015 0.117120 -0.324560 76 0 153
-0.056647 -0.222156 0.376953 153 0 76
0.107862 -0.222156 0.584671 153 0 76
0.271214 -0.175931 0.237066 153 0 76
0.633894 0.270627 -0.338683 76 0 153
0.457598 -0.169523 0.191706 0 127 127
0.420541 0.120625 -0.325499 76 0 153
-0.485988 -0.222156 -0.111790 153 0 76
-0.483525 -0.169523 0.617435 153 0 76
-0.193833 -0.222156 0.054986 153 0 76
-0.332720 0.259582 -0.335724 153 76 0
-0.072109 -0.011416 -0.290121 76 0 153
-0.645875 0.085453 -0.289068 76 0 153
0.465730 0.625589 -0.454410 76 0 153
-0.018337 -0.186446 -0.149581 153 0 76
-0.258554 0.646502 -0.438073 76 0 153
-0.543319 -0.169523 0.416462 153 0 76
-0.326356 -0.194539 -0.233420 76 0 153
0.415716 0.017214 -0.297792 76 0 153
-0.651990 0.212777 -0.323183 76 0 153
-0.658400 -0.211738 0.443615 153 0 76
-0.479926 0.028277 -0.300756 76 0 153
0.006633 -0.174270 0.216935 153 0 76
-0.654947 -0.213717 0.549038 153 0 76
0.406220 -0.218224 0.663954 153 0 76
0.351331 0.374096 -0.366407 153 76 0
0.475039 0.473901 -0.393148 153 76 0
0.162291 0.096838 -0.292119 153 76 0
-0.188513 -0.000127 -0.266138 153 76 0
0.387595 -0.220470 0.649967 153 0 76
0.643812 0.519622 -0.407252 76 0 153
-0.382245 0.194715 -0.318344 153 76 0
0.185858 -0.221823 -0.134620 153 0 76
-0.099899 -0.169523 0.401309 153 0 76
0.032755 -0.222156 0.530897 153 0 76
-0.494001 0.256023 -0.334770 153 76 0
-0.259670 0.608099 -0.429104 76 0 153
0.505252 -0.169523 0.462722 153 0 76
-0.300648 0.337439 -0.356585 153 76 0
0.584875 -0.219869 0.641397 153 0 76
-0.547948 0.173661 -0.312702 153 76 0
-0.449668 0.299095 -0.373318 76 0 153
0.452106 -0.079689 -0.244821 153 76 0
0.535124 0.038304 -0.303443 76 0 153
0.404281 0.072362 -0.312568 76 0 153
0.056679 -0.222156 0.449876 153 0 76
-0.090967 -0.200368 -0.159865 153 0 76
0.583397 -0.222156 0.326507 153 0 76
0.175108 -0.180438 -0.214971 76 0 153
0.469377 0.342036 -0.357817 153 76 0
0.286852 0.633179 -0.452856 76 0 153
-0.511852 -0.169523 0.397531 153 0 76
-0.106442 -0.222156 0.068175 153 0 76
0.164749 -0.169523 0.325975 153 0 76
0.204913 0.585784 -0.450133 76 0 153
0.112627 0.487529 -0.423806 76 0 153
-0.513469 0.380009 -0.367991 153 76 0
-0.182488 -0.175931 0.110243 153 0 76
-0.243485 0.351774 -0.360426 153 76 0
-0.213378 -0.222156 0.081122 153 0 76
-0.074258 0.361200 -0.389958 76 0 153
0.373194 -0.222156 0.353119 153 0 76
0.359208 0.011960 -0.269377 153 76 0
-0.364820 0.027325 -0.300501 76 0 153
-0.606732 -0.169523 0.307460 153 0 76
-0.361974 0.052914 -0.307357 76 0 153
0.073820 -0.169523 0.406375 153 0 76
0.630338 0.135557 -0.320128 76 0 153
0.075836 0.379955 -0.367976 153 76 0
0.643932 -0.201235 0.158486 153 0 76
0.127109 -0.175931 0.174407 0 127 127
0.202734 -0.169523 0.320665 153 0 76
0.591582 0.010558 -0.269001 76 0 153
0.458479 0.527057 -0.407390 153 76 0
-0.395113 -0.101998 -0.265851 76 0 153
0.208274 -0.222156 0.600960 153 0 76
-0.628489 -0.220067 0.032357 153 0 76
0.515381 -0.002283 -0.292568 76 0 153
0.104641 0.015101 -0.270218 153 76 0
0.639355 -0.190286 0.205765 153 0 76
-0.651580 -0.215646 0.467378 153 0 76
-0.096101 -0.222156 0.374061 153 0 76
0.537608 -0.212505 -0.176997 153 0 76
-0.656464 -0.212848 0.056382 153 0 76
0.625822 -0.169523 0.513595 153 0 76
-0.086145 0.009491 -0.268715 153 76 0
-0.356243 0.107670 -0.295021 153 76 0
0.067349 0.446389 -0.385776 153 76 0
0.422802 0.555204 -0.414932 153 76 0
0.438103 0.533994 -0.436256 76 0 153
-0.355283 -0.222156 -0.018012 153 0 76
-0.350922 0.334699 -0.355851 153 76 0
0.281974 0.194054 -0.318166 153 76 0
-0.617102 -0.169523 -0.098571 153 0 76
0.526818 -0.222156 0.137605 153 0 76
-0.619123 0.563413 -0.417131 76 0 153
0.128335 0.554395 -0.414715 153 76 0
-0.170709 -0.169523 0.600317 153 0 76
-0.669611 -0.188532 0.321777 153 0 76
0.200037 -0.200530 -0.160105 153 0 76
-0.296105 0.403787 -0.401369 76 0 153
0.254786 0.346401 -0.385993 76 0 153
-0.452626 0.017574 -0.270881 153 76 0
-0.330919 -0.174779 0.281380 0 127 127
-0.128620 -0.094664 -0.267816 76 0 153
0.167276 0.343455 -0.385204 76 0 153
0.528689 -0.222156 0.548735 153 0 76
0.191439 0.288608 -0.370508 76 0 153
0.163884 -0.218342 -0.156298 153 0 76
0.393202 0.104710 -0.321235 76 0 153
-0.095765 -0.082947 -0.270955 76 0 153
0.624090 -0.087146 -0.242823 76 0 153
0.562539 -0.033076 -0.257310 153 76 0
0.039343 -0.222156 -0.002360 153 0 76
0.626977 -0.169523 0.128735 153 0 76
0.543239 -0.169523 0.358167 153 0 76
0.192447 -0.175039 0.194334 153 0 76
-0.624599 0.488282 -0.422548 76 0 153
0.314063 -0.166818 -0.221476 76 0 153
-0.646077 0.492544 -0.398143 76 0 153
0.485682 -0.222156 0.428165 153 0 76
0.458882 -0.174795 -0.105985 153 0 76
-0.339572 -0.096117 -0.267426 76 0 153
0.418572 -0.175931 0.255923 0 127 127
-0.209668 -0.175931 -0.088471 0 127 127
0.473198 -0.169523 0.324844 153 0 76
0.371939 -0.164196 -0.248055 76 0 153
0.386176 -0.143305 -0.254783 76 0 153
0.123922 0.289824 -0.370834 76 0 153
-0.439765 -0.214147 -0.173713 153 0 76
0.027419 0.571636 -0.446342 76 0 153
0.378263 -0.209434 -0.210456 76 0 153
0.273238 0.545071 -0.412217 153 76 0
0.635499 -0.169523 -0.121431 153 0 76
-0.086411 -0.222156 0.565106 153 0 76
-0.198886 0.216758 -0.351257 76 0 153
0.503690 -0.222156 0.488397 153 0 76
0.152684 -0.222156 0.160142 153 0 76
-0.007772 -0.222156 0.273917 153 0 76
-0.019475 -0.169523 0.154896 0 127 127
-0.248592 -0.174041 -0.191074 127 0 127
-0.170678 -0.222156 -0.007143 153 0 76
-0.142855 0.560355 -0.443319 76 0 153
0.432524 -0.169523 0.640902 153 0 76
-0.198030 0.462367 -0.417065 76 0 153
0.575202 -0.000121 -0.266140 153 76 0
-0.436096 0.287118 -0.343102 153 76 0
-0.277279 0.139981 -0.303678 153 76 0
-0.517361 0.511001 -0.430096 76 0 153
-0.598060 -0.222156 0.050730 153 0 76
-0.064677 0.055704 -0.308105 76 0 153
0.507919 -0.169523 -0.020146 153 0 76
-0.124904 0.434410 -0.409574 76 0 153
-0.130191 -0.222156 -0.052844 153 0 76
0.563565 -0.222156 0.126332 153 0 76
0.296388 -0.222156 0.075868 153 0 76
0.542763 -0.222156 0.334014 153 0 76
-0.657899 0.275683 -0.356557 76 0 153
-0.238479 0.323511 -0.352853 153 76 0
0.139821 -0.169523 0.395841 153 0 76
0.577801 0.596736 -0.426060 76 0 153
-0.397992 -0.175931 0.032735 0 127 127
0.417260 0.586973 -0.450451 76 0 153
0.236330 0.045127 -0.278264 153 76 0
-0.607191 -0.216376 -0.166926 153 0 76
0.098719 -0.156403 -0.224266 76 0 153
0.330612 -0.193457 -0.178356 127 0 127
0.446508 -0.222156 -0.111933 153 0 76
0.361081 -0.169523 0.345095 153 0 76
0.327239 -0.222156 0.288012 153 0 76
-0.020911 -0.169523 0.506283 76 0 153
0.588381 -0.169523 0.397206 153 0 76
0.210058 0.400171 -0.400400 76 0 153
-0.153613 -0.222156 -0.110358 153 0 76
0.144308 -0.175931 0.203710 0 127 127
0.370832 -0.175931 -0.054174 153 0 76
-0.118959 0.473104 -0.392934 153 76 0
-0.301147 -0.222156 -0.001110 153 0 76
-0.651564 -0.215655 0.024414 153 0 76
0.446936 -0.175931 0.237937 153 0 76
-0.311659 -0.222156 0.437703 153 0 76
0.455249 -0.172207 -0.244467 76 0 153
-0.165582 -0.169523 0.654479 153 0 76
-0.602273 -0.222156 0.297135 153 0 76
-0.257837 -0.175931 0.053262 153 0 76
0.231686 -0.222156 0.541850 153 0 76
-0.630214 -0.219766 0.130788 153 0 76
-0.500103 0.604352 -0.428101 76 0 153
-0.077653 -0.045080 -0.281101 76 0 153
-0.569573 -0.169523 0.438293 153 0 76
-0.123871 0.477570 -0.421138 76 0 153
0.454455 -0.222156 0.468626 153 0 76
-0.026596 0.132868 -0.301773 153 76 0
-0.363757 -0.169523 0.376463 153 0 76
0.593977 -0.221609 0.217337 153 0 76
-0.024761 -0.222156 -0.002752 153 0 76
0.321651 -0.079841 -0.244780 153 76 0
-0.077312 -0.169523 0.413322 153 0 76
-0.435467 -0.222156 0.238805 153 0 76
0.454978 -0.175931 0.262956 0 127 127
0.589120 0.538799 -0.410536 76 0 153
0.270783 0.112108 -0.323217 76 0 153
0.546896 0.003821 -0.267196 153 76 0
-0.098457 -0.169523 0.602201 76 0 153
0.152717 -0.169523 0.595108 76 0 153
0.526132 -0.169523 -0.040918 153 0 76
-0.182181 -0.208970 0.690758 153 0 76
0.623526 -0.059884 -0.250127 76 0 153
-0.199660 0.633649 -0.435950 76 0 153
-0.208722 -0.169523 0.087084 153 0 76
-0.443467 -0.169523 0.598644 153 0 76
0.307789 -0.175931 0.163637 153 0 76
0.639939 0.022632 -0.272754 76 0 153
0.084971 -0.111518 -0.263300 76 0 153
-0.198630 -0.222156 0.503157 153 0 76
0.546103 0.339999 -0.357271 153 76 0
0.286951 -0.100989 -0.239114 153 76 0
0.515970 0.311785 -0.349711 153 76 0
0.362946 -0.221817 -0.134657 153 0 76
0.536396 -0.220132 0.652073 153 0 76
-0.121284 0.296277 -0.372563 76 0 153
-0.075777 -0.222156 0.141580 153 0 76
-0.376754 -0.186828 -0.149635 153 0 76
0.275606 -0.175931 0.079866 0 127 127
-0.324118 0.113016 -0.296453 153 76 0
-0.508064 -0.222156 0.333314 153 0 76
-0.476884 -0.204619 -0.183323 127 0 127
0.176452 0.314105 -0.377340 76 0 153
0.589178 -0.222156 0.516795 153 0 76
-0.065133 -0.169523 0.618556 76 0 153
0.538944 0.277626 -0.340558 153 76 0
0.482443 -0.127521 -0.232005 76 0 153
0.018599 -0.175290 0.296736 153 0 76
0.077885 -0.169523 0.268964 153 0 76
-0.368770 0.355731 -0.361486 153 76 0
-0.277783 -0.169523 0.357223 153 0 76
0.431278 -0.222156 0.171576 153 0 76
0.005812 -0.169523 0.174715 0 127 127
0.282199 -0.169523 -0.069102 0 127 127
-0.046099 -0.175931 -0.036064 153 0 76
0.420074 -0.222156 0.244102 153 0 76
-0.411183 -0.222156 0.369199 153 0 76
-0.068220 -0.169523 0.485403 76 0 153
0.232849 -0.172060 0.306180 153 0 76
-0.360295 0.329094 -0.381356 76 0 153
0.309318 -0.169523 0.388118 153 0 76
-0.425886 0.651443 -0.442302 76 0 153
0.153855 -0.222156 -0.002401 153 0 76
0.636824 0.443312 -0.398740 76 0 153
0.546643 0.361282 -0.389980 76 0 153
0.247715 -0.222156 0.388300 153 0 76
0.456813 0.396256 -0.399351 76 0 153
0.506873 -0.222156 0.167054 153 0 76
-0.401583 -0.169523 0.644373 153 0 76
-0.033913 -0.222156 0.033827 153 0 76
0.259714 0.613099 -0.453273 76 0 153
-0.224986 -0.175931 0.217359 0 127 127
0.613092 0.456170 -0.411383 76 0 153
0.446425 -0.222156 0.449381 153 0 76
-0.656402 0.123988 -0.316801 76 0 153
-0.568484 0.245235 -0.331880 153 76 0
-0.014384 0.475843 -0.393668 153 76 0
0.195253 0.388909 -0.370375 153 76 0
0.050079 0.271987 -0.366055 76 0 153
-0.460012 0.014573 -0.297084 76 0 153
-0.260193 -0.222156 0.038590 153 0 76
0.178496 -0.202415 -0.169176 153 0 76
0.594037 0.240467 -0.357032 76 0 153
0.184203 -0.222156 0.447374 153 0 76
0.583322 -0.169523 -0.141426 153 0 76
-0.321959 0.622474 -0.454238 76 0 153
0.495117 -0.169695 0.146109 153 0 76
-0.378093 0.067827 -0.284346 153 76 0
-0.554457 0.321272 -0.379260 76 0 153
0.554063 0.245366 -0.331915 153 76 0
-0.058467 -0.175413 0.070567 0 127 127
0.517458 -0.169523 0.301470 153 0 76
0.148552 -0.169523 -0.036263 0 127 127
0.641003 0.236332 -0.330379 76 0 153
0.292998 -0.222156 0.291753 153 0 76
-0.007041 -0.202684 -0.226197 76 0 153
0.046218 -0.169523 0.495627 76 0 153
0.311333 0.425570 -0.407205 76 0 153
-0.451618 0.151592 -0.306789 153 76 0
0.350742 -0.175931 -0.017157 153 0 76
0.367831 -0.222156 0.161389 153 0 76
0.106087 -0.175931 0.189604 153 0 76
-0.171777 0.437529 -0.410410 76 0 153
0.284943 -0.169523 0.502509 153 0 76
-0.147692 -0.098288 -0.239837 153 76 0
0.275567 -0.169523 0.308620 153 0 76
-0.625296 -0.169523 0.000267 153 0 76
0.037884 -0.221131 0.645853 153 0 76
0.570248 -0.169523 -0.102317 153 0 76
-0.479937 -0.179281 -0.149068 153 0 76
-0.292878 -0.222156 0.479303 153 0 76
0.330037 -0.222156 0.636937 153 0 76
-0.389529 -0.176904 -0.201778 127 0 127
-0.656524 0.500665 -0.417654 76 0 153
-0.659617 -0.211041 -0.019793 153 0 76
-0.602674 -0.169523 0.270428 153 0 76
0.582293 -0.103163 -0.238531 76 0 153
0.267569 0.432246 -0.408994 76 0 153
-0.198882 -0.170214 0.528282 153 0 76
-0.280543 0.176330 -0.313418 153 76 0
0.482521 -0.175494 -0.074862 153 0 76
0.559372 -0.092578 -0.268374 76 0 153
-0.620484 -0.169523 0.056236 153 0 76
-0.521694 -0.148031 -0.253517 76 0 153
0.194558 -0.175931 0.048583 153 0 76
-0.470838 -0.222156 0.093632 153 0 76
-0.162473 -0.222156 0.477060 153 0 76
0.642321 0.478815 -0.395804 76 0 153
-0.452926 -0.172335 -0.244410 76 0 153
-0.516242 -0.194247 -0.192776 153 0 76
-0.446945 -0.222156 0.425517 153 0 76
-0.049506 -0.221676 -0.135536 153 0 76
0.207432 0.074140 -0.313044 76 0 153
-0.605160 -0.169523 -0.148506 153 0 76
0.164468 0.362210 -0.390229 76 0 153
0.450216 0.599792 -0.426879 153 76 0
0.594540 0.631746 -0.435440 76 0 153
-0.103789 -0.175931 -0.000643 153 0 76
-0.056466 -0.222156 0.011264 153 0 76
-0.287095 0.174935 -0.340051 76 0 153
-0.136951 -0.222156 0.109141 153 0 76
-0.191670 0.405623 -0.401861 76 0 153
0.411023 -0.222156 0.310422 153 0 76
0.204695 -0.222156 0.530550 153 0 76
0.478605 -0.222156 0.019429 153 0 76
-0.584951 -0.050054 -0.279768 76 0 153
0.591088 -0.169523 0.103978 153 0 76
-0.376105 -0.222156 0.627284 153 0 76
-0.312222 0.456818 -0.415578 76 0 153
-0.474885 0.174849 -0.313021 153 76 0
0.410505 0.596390 -0.425967 153 76 0
-0.308308 -0.169523 0.448120 153 0 76
-0.020822 0.484781 -0.423070 76 0 153
-0.079932 -0.143398 -0.254758 76 0 153
0.116502 0.599219 -0.451845 76 0 153
0.292469 -0.169523 0.358524 153 0 76
0.421674 0.326164 -0.380571 76 0 153
-0.329042 -0.222156 0.333852 153 0 76
-0.251172 0.555939 -0.415129 153 76 0
-0.147358 -0.196793 -0.155020 153 0 76
0.212229 0.455641 -0.388255 153 76 0
0.429688 -0.222156 -0.118242 153 0 76
0.158026 -0.169523 0.308728 153 0 76
-0.255379 0.574120 -0.447007 76 0 153
0.240876 -0.169523 0.425729 153 0 76
-0.453985 0.362436 -0.390290 76 0 153
0.152446 -0.169523 0.677484 153 0 76
0.110290 0.074764 -0.286205 153 76 0
-0.169986 -0.024516 -0.259604 153 76 0
-0.376354 -0.169523 0.342653 153 0 76
0.447776 -0.169523 0.333403 153 0 76
-0.399945 0.470773 -0.392310 153 76 0
0.415130 -0.222156 0.427371 153 0 76
0.054430 -0.054642 -0.278539 76 0 153
0.526535 -0.180072 -0.240946 76 0 153
-0.604093 0.334660 -0.355840 153 76 0
-0.225696 -0.169523 0.616766 153 0 76
0.382956 0.210019 -0.349451 76 0 153
0.595711 0.142138 -0.304256 76 0 153
0.508339 -0.222156 -0.105361 153 0 76
-0.146267 -0.222156 0.590058 153 0 76
-0.063088 -0.169523 0.655280 153 0 76
0.148464 0.574128 -0.420002 153 76 0
0.251672 0.329439 -0.354441 153 76 0
-0.353690 0.187764 -0.316481 153 76 0
-0.273146 0.430890 -0.381624 153 76 0
0.218626 -0.222156 0.213728 153 0 76
-0.184133 -0.222156 0.285631 153 0 76
0.200673 0.331458 -0.354982 153 76 0
-0.353259 -0.222156 0.624311 153 0 76
-0.109543 -0.222156 0.516475 153 0 76
0.391914 0.193919 -0.318130 153 76 0
-0.660686 -0.169523 0.599087 153 0 76
0.269719 -0.222156 -0.084086 153 0 76
-0.464713 0.121383 -0.298695 153 76 0
0.109294 -0.193500 0.699700 153 0 76
0.464491 -0.222156 0.540538 153 0 76
0.048173 0.226770 -0.353940 76 0 153
0.554975 -0.169523 -0.164667 153 0 76
0.117944 0.090169 -0.317339 76 0 153
0.362903 -0.169523 0.494426 153 0 76
0.077289 -0.169523 0.224151 0 127 127
0.108456 -0.218196 0.664129 153 0 76
-0.304203 -0.169523 0.643495 153 0 76
0.273610 0.227334 -0.327084 153 76 0
-0.467846 0.318265 -0.378455 76 0 153
-0.193540 -0.222156 -0.030936 153 0 76
0.240949 -0.222156 0.441810 153 0 76
0.598201 0.195156 -0.318462 76 0 153
-0.231787 -0.175931 0.046301 0 127 127
-0.026396 0.171339 -0.312081 153 76 0
-0.493264 -0.162331 -0.222678 76 0 153
-0.591059 -0.169523 -0.056072 153 0 76
0.229493 -0.214141 -0.173725 153 0 76
0.594694 0.082662 -0.314631 76 0 153
-0.052302 -0.169523 0.331311 153 0 76
0.108267 -0.169523 0.454639 76 0 153
0.080068 0.610276 -0.429688 153 76 0
0.180049 -0.169523 0.341674 153 0 76
-0.087519 -0.222156 -0.128895 153 0 76
-0.356747 -0.169523 0.501179 153 0 76
0.439432 0.175120 -0.313093 153 76 0
0.262484 -0.169523 -0.119183 153 0 76
-0.067960 0.326794 -0.353732 153 76 0
0.040403 -0.222156 0.566998 153 0 76
0.425991 0.160704 -0.336238 76 0 153
-0.669611 -0.199991 0.586993 153 0 76
-0.317006 -0.163113 -0.248539 76 0 153
-0.362918 0.127809 -0.300417 153 76 0
0.106286 -0.222156 0.527026 153 0 76
-0.363894 -0.058803 -0.250417 153 76 0
0.586492 -0.169523 0.525004 153 0 76
0.009081 0.454293 -0.387894 153 76 0
0.182328 -0.001336 -0.265814 153 76 0
-0.668251 -0.203805 0.261483 153 0 76
-0.444578 -0.039366 -0.282632 76 0 153
0.173792 0.416249 -0.404708 76 0 153
-0.101008 0.235787 -0.329348 153 76 0
-0.516417 -0.196037 -0.213647 76 0 153
-0.136685 -0.169523 0.245612 0 127 127
0.507091 0.066669 -0.311043 76 0 153
-0.549708 -0.222156 0.211285 153 0 76
0.596224 -0.204874 -0.187996 153 0 76
-0.515298 -0.174026 -0.018896 153 0 76
0.191890 0.370228 -0.392377 76 0 153
-0.241400 -0.175931 0.154960 0 127 127
0.426012 -0.175931 0.046059 0 127 127
0.295329 0.474891 -0.420420 76 0 153
-0.560318 0.525724 -0.434040 76 0 153
0.401377 -0.137995 -0.229198 76 0 153
0.640019 -0.206299 0.033996 153 0 76
0.286832 -0.200208 -0.159628 153 0 76
0.132184 -0.187005 -0.237841 76 0 153
-0.422423 -0.221941 -0.133885 153 0 76
-0.288351 -0.222156 0.037164 153 0 76
-0.072875 -0.119757 -0.234085 153 76 0
0.373297 -0.060628 -0.276935 76 0 153
-0.300140 0.354705 -0.361211 153 76 0
0.643932 -0.006237 -0.267074 76 0 153
0.408264 -0.176873 -0.201665 127 0 127
-0.618265 0.067046 -0.310828 76 0 153
0.378008 0.272988 -0.366323 76 0 153
-0.523558 -0.204673 0.696675 153 0 76
0.127171 -0.222156 0.188296 153 0 76
-0.160324 -0.222156 0.170753 153 0 76
0.388288 -0.219117 -0.151472 153 0 76
-0.549607 -0.206591 -0.211659 76 0 153
-0.122699 -0.175931 0.282856 0 127 127
0.629072 0.245211 -0.350260 76 0 153
0.541764 0.595582 -0.425751 153 76 0
-0.039617 0.273367 -0.339417 153 76 0
0.640908 -0.182796 0.283474 153 0 76
0.540416 0.317825 -0.378336 76 0 153
-0.293939 0.470914 -0.392348 153 76 0
-0.507757 -0.169523 0.361391 153 0 76
-0.168304 0.191051 -0.344369 76 0 153
-0.121188 0.619246 -0.432091 76 0 153
-0.458376 -0.222156 0.630936 153 0 76
-0.275108 0.576266 -0.420575 153 76 0
-0.650478 -0.169523 0.078052 153 0 76
-0.524020 0.291544 -0.371295 76 0 153
-0.644256 0.510283 -0.402896 76 0 153
-0.232013 0.547819 -0.439960 76 0 153
-0.118965 -0.179998 -0.149068 153 0 76
0.001144 0.081033 -0.314891 76 0 153
-0.564825 -0.030842 -0.284916 76 0 153
-0.171104 -0.222156 0.319208 153 0 76
0.344115 -0.222156 0.382102 153 0 76
-0.184902 -0.222156 0.264594 153 0 76
0.224224 0.412082 -0.403592 76 0 153
-0.115222 -0.222156 0.235574 153 0 76
0.012750 0.596420 -0.451557 76 0 153
-0.382087 -0.175931 -0.050569 153 0 76
-0.257792 0.315744 -0.377779 76 0 153
-0.332923 -0.169523 0.615348 153 0 76
0.275883 0.372979 -0.393114 76 0 153
-0.597733 0.035028 -0.302565 76 0 153
0.110223 0.045271 -0.278302 153 76 0
-0.231699 -0.127308 -0.259069 76 0 153
0.223741 -0.222156 0.009664 153 0 76
-0.101788 0.124530 -0.299539 153 76 0
-0.119061 -0.169523 0.535396 76 0 153
-0.525214 -0.222156 -0.112984 153 0 76
-0.033123 -0.218561 0.661858 153 0 76
-0.576084 -0.169523 0.501470 153 0 76
-0.602033 -0.164322 -0.222144 76 0 153
0.120294 -0.222156 0.166057 153 0 76
0.047947 -0.175931 -0.075892 153 0 76
0.523269 -0.187754 -0.215866 76 0 153
-0.179094 -0.222156 0.212779 153 0 76
0.545864 -0.222156 0.184137 153 0 76
-0.249834 -0.222156 -0.095906 153 0 76
0.571332 0.359139 -0.362399 76 0 153
0.053292 0.478040 -0.421264 76 0 153
-0.482114 0.349492 -0.386821 76 0 153
-0.274250 -0.175931 -0.082225 0 127 127
0.387048 -0.222156 -0.084459 153 0 76
-0.603860 -0.222156 -0.032725 153 0 76
-0.636666 -0.124811 -0.232731 76 0 153
0.342752 -0.222156 0.346329 153 0 76
-0.536548 -0.169523 0.382164 153 0 76
0.623166 -0.169523 0.557878 153 0 76
-0.577794 -0.222156 -0.025718 153 0 76
0.021477 0.136059 -0.329635 76 0 153
-0.485587 -0.222156 0.197382 153 0 76
0.568822 -0.169523 0.333282 153 0 76
0.397151 -0.222156 0.490085 153 0 76
0.553569 0.559537 -0.443100 76 0 153
0.429396 0.627417 -0.454036 76 0 153
-0.399933 0.499359 -0.399969 153 76 0
0.500996 0.395540 -0.372152 153 76 0
-0.260949 0.465429 -0.390878 153 76 0
-0.313598 0.374071 -0.393407 76 0 153
0.461062 -0.175931 0.156229 0 127 127
0.413545 -0.169523 0.164185 153 0 76
0.489060 -0.169523 0.491614 153 0 76
-0.043671 -0.102748 -0.238643 153 76 0
0.102613 -0.123054 -0.233202 153 76 0
0.136358 -0.222156 -0.016319 153 0 76
-0.008912 -0.169523 0.470520 76 0 153
-0.109414 -0.169523 0.435147 76 0 153
0.532130 -0.222156 0.294638 153 0 76
-0.320088 -0.169523 0.682592 153 0 76
0.285290 0.572001 -0.419432 153 76 0
-0.646519 -0.169523 0.624752 153 0 76
-0.051102 -0.175931 0.091869 0 127 127
-0.203188 -0.025147 -0.286442 76 0 153
-0.206171 0.612390 -0.453200 76 0 153
-0.442348 0.166740 -0.337855 76 0 153
-0.586327 0.524514 -0.406709 153 76 0
0.391634 -0.222156 0.227700 153 0 76
0.319360 -0.212922 -0.176164 153 0 76
-0.511581 -0.015757 -0.288958 76 0 153
-0.512348 -0.222156 0.460202 153 0 76
-0.443130 -0.169523 0.507206 153 0 76
-0.109527 -0.222156 0.410673 153 0 76
0.148029 -0.088602 -0.269440 76 0 153
-0.612716 -0.169523 -0.190193 153 0 76
-0.472358 -0.092275 -0.268456 76 0 153
-0.022403 -0.222156 -0.020260 153 0 76
0.176382 0.040533 -0.304040 76 0 153
-0.571089 0.005199 -0.267565 153 76 0
0.201514 0.423354 -0.379605 153 76 0
-0.206912 -0.174620 -0.185932 127 0 127
0.605718 -0.213337 -0.165324 153 0 76
-0.081695 -0.222156 0.439633 153 0 76
0.578909 -0.222156 -0.034382 153 0 76
-0.616741 -0.222118 0.163776 153 0 76
-0.448812 -0.190008 -0.236496 76 0 153
-0.660755 -0.210389 0.109140 153 0 76
0.138347 -0.222156 0.109314 153 0 76
-0.553295 -0.169523 0.601472 153 0 76
-0.408815 -0.169523 0.410026 153 0 76
-0.131484 -0.222156 0.036991 153 0 76
-0.218420 -0.209241 0.690385 153 0 76
0.231419 -0.217155 0.670611 153 0 76
0.188062 -0.169523 -0.130943 153 0 76
0.626424 -0.169523 0.580165 153 0 76
0.499782 -0.169523 0.204136 153 0 76
0.263375 -0.175931 -0.003904 153 0 76
-0.413143 0.231973 -0.355334 76 0 153
0.635772 -0.209990 0.455552 153 0 76
0.359859 0.080030 -0.287615 153 76 0
-0.038225 0.610924 -0.453049 76 0 153
-0.474313 0.591107 -0.451010 76 0 153
-0.414063 -0.222156 0.104611 153 0 76
-0.626855 -0.169523 0.256002 153 0 76
0.594652 0.615292 -0.452366 76 0 153
-0.592543 -0.169523 0.342244 153 0 76
-0.219355 -0.222156 0.579393 153 0 76
-0.216271 -0.138839 -0.228972 76 0 153
0.032839 -0.202397 -0.168657 153 0 76
-0.472725 -0.175931 0.184377 0 127 127
-0.182245 -0.169523 0.685266 153 0 76
0.142357 -0.204945 0.696300 153 0 76
-0.039321 0.062844 -0.283011 153 76 0
-0.464102 -0.222156 0.328090 153 0 76
-0.011595 -0.153839 -0.251960 76 0 153
0.272386 -0.169523 0.605866 153 0 76
-0.231715 -0.222156 0.061140 153 0 76
0.335321 -0.169600 0.086553 153 0 76
0.642568 -0.175939 -0.146385 153 0 76
0.205116 0.472645 -0.419819 76 0 153
-0.141259 -0.071531 -0.247007 153 76 0
-0.594015 -0.222156 0.488581 153 0 76
-0.286157 -0.177193 -0.202859 76 0 153
0.221158 -0.175931 0.216723 153 0 76
0.234430 0.081775 -0.288083 153 76 0
0.219908 -0.175931 0.194581 0 127 127
-0.535117 -0.222156 0.296096 153 0 76
-0.213795 0.349695 -0.359869 153 76 0
0.061552 -0.180124 -0.217911 76 0 153
0.579847 -0.222156 0.278254 153 0 76
0.506756 0.460696 -0.389610 153 76 0
-0.641733 -0.169523 0.020472 153 0 76
0.387752 -0.046124 -0.280821 76 0 153
0.417567 0.358359 -0.389197 76 0 153
0.075615 -0.219782 -0.147329 153 0 76
-0.151574 0.553179 -0.414389 153 76 0
-0.277855 -0.078665 -0.245095 153 76 0
0.295268 -0.067197 -0.275175 76 0 153
0.291410 -0.175931 0.240654 153 0 76
0.439167 -0.222156 0.561213 153 0 76
0.240495 -0.222156 0.328651 153 0 76
-0.452225 -0.173403 -0.110382 153 0 76
0.462846 0.551006 -0.440814 76 0 153
0.098306 0.611404 -0.429990 76 0 153
0.038993 -0.222156 0.337089 153 0 76
-0.487655 -0.169523 -0.004277 0 127 127
0.330532 -0.171351 -0.244851 76 0 153
-0.159366 -0.220080 -0.145477 153 0 76
0.302242 0.593922 -0.451299 76 0 153
-0.132601 -0.222156 0.206413 153 0 76
-0.084062 -0.175539 -0.184561 127 0 127
-0.179595 0.483883 -0.422830 76 0 153
-0.463645 0.211624 -0.322874 153 76 0
0.376000 -0.169523 0.552656 153 0 76
-0.250955 0.487566 -0.423817 76 0 153
-0.551178 0.422370 -0.379341 153 76 0
-0.162665 -0.169523 0.029904 0 127 127
0.505014 -0.169523 0.323933 153 0 76
0.109168 -0.068131 -0.274925 76 0 153
0.368340 -0.169523 0.023762 0 127 127
0.604082 0.295695 -0.345400 76 0 153
-0.424394 0.117831 -0.297744 153 76 0
0.635999 -0.169523 0.472274 153 0 76
-0.192533 -0.169523 0.464974 153 0 76
-0.565019 -0.169523 0.029486 153 0 76
-0.090065 0.606579 -0.428697 153 76 0
0.595785 0.148311 -0.332024 76 0 153
0.435224 0.089167 -0.317071 76 0 153
0.453075 -0.169523 0.556546 153 0 76
-0.059493 -0.168732 -0.246023 76 0 153
-0.263954 0.006969 -0.268040 153 76 0
-0.118492 -0.206446 -0.199302 76 0 153
0.236121 -0.222156 0.267166 153 0 76
-0.401721 0.449424 -0.386589 153 76 0
-0.453655 -0.169523 0.370682 153 0 76
-0.042342 -0.006881 -0.264329 153 76 0
0.030207 -0.168089 -0.246311 76 0 153
-0.502986 0.460814 -0.389641 153 76 0
-0.172423 -0.204366 -0.191542 127 0 127
0.222921 0.546488 -0.412596 153 76 0
0.551847 -0.222156 -0.012139 153 0 76
-0.669611 -0.189666 -0.025799 153 0 76
-0.241497 -0.187515 -0.149731 153 0 76
0.620749 -0.114329 -0.235540 76 0 153
-0.600056 -0.015883 -0.261917 153 76 0
-0.401266 0.340531 -0.384420 76 0 153
-0.276091 -0.222156 0.513030 153 0 76
0.639355 -0.185757 0.235048 153 0 76
0.127004 -0.169523 0.651269 153 0 76
-0.405108 0.262707 -0.363568 76 0 153
-0.019057 -0.216395 -0.168424 153 0 76
-0.214606 -0.222156 0.162336 153 0 76
0.635999 0.186591 -0.314272 76 0 153
0.593426 -0.213162 0.678976 153 0 76
-0.397442 0.185100 -0.315768 153 76 0
-0.327969 0.455901 -0.388325 153 76 0
0.446775 0.315426 -0.377694 76 0 153
-0.113804 0.203489 -0.320695 153 76 0
0.396009 0.218324 -0.324669 153 76 0
0.474254 -0.211416 0.686098 153 0 76
0.567100 0.629767 -0.453555 76 0 153
0.187936 0.202466 -0.320420 153 76 0
-0.566017 -0.169523 -0.144755 153 0 76
-0.326176 0.608162 -0.429121 76 0 153
0.154690 0.260616 -0.336001 153 76 0
0.034274 -0.034235 -0.257000 153 76 0
0.314898 -0.222156 0.321965 153 0 76
0.388390 -0.096227 -0.267397 76 0 153
0.643053 -0.203335 0.538522 153 0 76
-0.647516 0.265455 -0.337298 76 0 153
0.318154 -0.175931 -0.092450 0 127 127
0.353666 -0.169523 -0.139004 153 0 76
-0.361858 0.200666 -0.346945 76 0 153
0.310702 -0.222156 0.609789 153 0 76
0.135772 0.277210 -0.367454 76 0 153
-0.548939 -0.211883 -0.178240 153 0 76
0.596389 -0.002363 -0.291544 76 0 153
-0.251631 -0.067939 -0.274976 76 0 153
0.314639 0.250126 -0.360197 76 0 153
0.309657 0.278213 -0.340716 153 76 0
-0.016657 0.424860 -0.407015 76 0 153
-0.627901 0.517563 -0.429797 76 0 153
-0.270763 -0.169523 0.455276 153 0 76
-0.038503 0.514676 -0.431080 76 0 153
0.472325 0.606377 -0.452581 76 0 153
0.617494 -0.217503 0.398247 153 0 76
0.242518 -0.222156 0.144679 153 0 76
-0.416055 -0.222156 0.062942 153 0 76
0.093047 -0.052700 -0.252052 153 76 0
0.224432 -0.175931 -0.017343 0 127 127
0.632588 -0.211814 0.425254 153 0 76
0.264008 0.603020 -0.427744 76 0 153
0.454360 -0.205743 0.695202 153 0 76
0.434478 -0.222156 0.336694 153 0 76
0.327919 -0.169523 0.264782 0 127 127
-0.073838 0.243355 -0.358383 76 0 153
0.190934 0.055501 -0.308050 76 0 153
-0.334937 0.368921 -0.392027 76 0 153
-0.662300 -0.209504 0.356738 153 0 76
0.178040 0.563039 -0.444038 76 0 153
-0.344171 0.557046 -0.442433 76 0 153
-0.413051 -0.175931 0.174552 0 127 127
0.078918 -0.175931 0.159072 0 127 127
0.280988 -0.030551 -0.284994 76 0 153
-0.184723 0.288615 -0.343503 153 76 0
0.156936 0.498210 -0.399661 153 76 0
0.174642 0.465782 -0.390972 153 76 0
-0.634803 -0.169523 0.173655 153 0 76
0.206342 -0.222156 0.620077 153 0 76
-0.132060 -0.222156 -0.010840 153 0 76
0.536838 -0.222156 0.456861 153 0 76
0.390077 -0.222156 0.369754 153 0 76
-0.473288 0.183135 -0.342248 76 0 153
-0.182045 -0.169523 0.564617 153 0 76
-0.316266 -0.222156 0.608341 153 0 76
-0.658317 0.005120 -0.267544 76 0 153
-0.594285 -0.207031 0.693428 153 0 76
-0.078677 -0.222156 0.506656 153 0 76
-0.361815 -0.222156 0.391061 153 0 76
-0.443174 -0.222156 0.149185 153 0 76
-0.362106 0.076334 -0.286625 153 76 0
0.037255 0.107170 -0.321894 76 0 153
0.159392 0.438054 -0.410550 76 0 153
0.326034 -0.194324 -0.233611 76 0 153
-0.669611 -0.187901 0.233049 153 0 76
0.060316 -0.169523 0.102804 0 127 127
-0.556437 -0.222156 0.460691 153 0 76
-0.654478 -0.213985 0.595546 153 0 76
0.361594 -0.222156 0.421940 153 0 76
-0.422452 -0.175931 0.205845 0 127 127
-0.590261 0.503595 -0.428111 76 0 153
0.254080 -0.169523 -0.086436 153 0 76
0.243735 -0.222156 -0.130872 153 0 76
-0.474711 0.570513 -0.419034 153 76 0
0.383429 -0.222156 0.172606 153 0 76
0.082268 -0.222156 0.360821 153 0 76
-0.604503 0.181821 -0.341896 76 0 153
-0.245966 -0.221568 -0.136210 153 0 76
0.481305 0.120118 -0.298357 153 76 0
0.504546 0.171808 -0.312206 153 76 0
-0.284635 -0.169523 0.393820 153 0 76
-0.233788 0.552004 -0.414075 153 76 0
-0.346579 -0.222156 0.425166 153 0 76
0.064985 -0.175931 0.249451 153 0 76
0.458524 0.376461 -0.367040 153 76 0
-0.525552 0.082751 -0.315352 76 0 153
-0.123777 0.559151 -0.442997 76 0 153
0.597768 -0.169523 0.293874 153 0 76
-0.149282 0.426582 -0.380469 153 76 0
0.141933 -0.027740 -0.285747 76 0 153
0.467576 -0.141331 -0.255312 76 0 153
-0.070757 0.206028 -0.348382 76 0 153
0.597359 -0.221018 0.192030 153 0 76
-0.479379 -0.222156 0.157352 153 0 76
-0.181664 -0.169523 -0.116757 153 0 76
0.424097 0.241503 -0.330880 153 76 0
0.223070 -0.169523 0.337435 153 0 76
-0.584241 0.608384 -0.452739 76 0 153
-0.482273 -0.222156 0.076989 153 0 76
-0.062930 -0.169523 -0.087195 0 127 127
0.370480 0.582014 -0.449123 76 0 153
0.226263 -0.191151 -0.178946 153 0 76
-0.066357 0.586581 -0.423339 153 76 0
0.275278 -0.169523 0.370345 153 0 76
0.361765 -0.169523 0.646704 153 0 76
0.482399 -0.175511 -0.040199 153 0 76
-0.183794 0.204183 -0.320881 153 76 0
0.246998 0.446583 -0.385828 153 76 0
-0.225130 -0.175931 0.021870 0 127 127
0.063616 -0.175931 -0.016958 0 127 127
0.122268 0.587802 -0.423666 153 76 0
-0.240465 -0.222156 0.568848 153 0 76
0.386598 -0.125466 -0.259563 76 0 153
0.107569 -0.209127 -0.209310 76 0 153
0.301726 0.242928 -0.331262 153 76 0
0.448620 -0.175931 0.006021 0 127 127
-0.574260 -0.010786 -0.290290 76 0 153
-0.136759 0.382035 -0.395541 76 0 153
0.530209 0.236097 -0.356439 76 0 153
-0.591667 0.318801 -0.378598 76 0 153
-0.373782 -0.222156 0.156522 153 0 76
-0.644193 -0.217325 -0.108812 153 0 76
-0.185437 -0.219917 0.653416 153 0 76
-0.201019 -0.222156 0.365882 153 0 76
-0.482671 -0.034158 -0.284027 76 0 153
0.284794 -0.048285 -0.253235 153 76 0
0.560451 -0.169523 0.240764 153 0 76
-0.439643 -0.222156 -0.071718 153 0 76
0.264797 -0.184757 0.699700 153 0 76
-0.449487 -0.222156 0.522617 153 0 76
0.417455 -0.171654 0.306684 153 0 76
-0.594607 -0.221212 -0.132158 153 0 76
0.561741 -0.169523 0.163424 153 0 76
0.033384 -0.170192 -0.220572 76 0 153
0.384009 -0.169523 -0.137262 153 0 76
0.052102 0.188219 -0.343610 76 0 153
-0.511934 0.193865 -0.318116 153 76 0
0.298988 -0.169523 0.464290 153 0 76
-0.256150 0.158960 -0.308764 153 76 0
-0.564851 -0.144286 -0.254520 76 0 153
-0.390635 -0.222156 0.187028 153 0 76
-0.388526 -0.175931 0.081255 0 127 127
0.061499 0.164995 -0.310381 153 76 0
0.160886 0.181563 -0.314820 153 76 0
-0.013052 0.145359 -0.332127 76 0 153
-0.661484 -0.208282 0.651043 153 0 76
-0.067774 0.293435 -0.344794 153 76 0
-0.397748 0.008518 -0.295462 76 0 153
-0.145335 -0.222156 0.072085 153 0 76
-0.016433 -0.222156 0.536090 153 0 76
0.184902 -0.175837 0.290841 153 0 76
0.304594 0.511740 -0.430293 76 0 153
0.121302 0.636666 -0.436759 76 0 153
-0.157014 -0.202393 -0.168542 153 0 76
-0.442822 -0.222156 0.068470 153 0 76
0.093268 0.511969 -0.430355 76 0 153
0.622066 -0.216705 0.498611 153 0 76
-0.241459 -0.222156 -0.113550 153 0 76
0.535267 0.510009 -0.402823 153 76 0
0.414173 -0.222156 0.381542 153 0 76
0.132740 -0.222156 0.354689 153 0 76
-0.041430 -0.169523 0.528808 76 0 153
0.351883 -0.066007 -0.248487 153 76 0
-0.010035 0.273367 -0.339417 153 76 0
-0.223342 -0.175931 0.075458 0 127 127
-0.217654 -0.175931 0.105066 0 127 127
-0.237606 0.410853 -0.376255 153 76 0
0.242726 0.100521 -0.293106 153 76 0
-0.060969 0.127920 -0.300447 153 76 0
-0.038040 0.634258 -0.436113 76 0 153
0.383727 0.277544 -0.340537 153 76 0
0.203185 -0.222156 0.037054 153 0 76
-0.334483 -0.175931 -0.066134 0 127 127
-0.398496 -0.222156 0.217812 153 0 76
-0.563140 0.034291 -0.275360 153 76 0
0.471249 0.582340 -0.449210 76 0 153
0.055616 -0.222156 -0.130232 153 0 76
-0.463236 -0.175931 0.200991 0 127 127
-0.081114 -0.167384 -0.221324 76 0 153
-0.320011 -0.222156 0.177724 153 0 76
-0.623565 -0.169523 0.452949 153 0 76
-0.339493 0.279430 -0.368049 76 0 153
0.358073 -0.222156 0.082635 153 0 76
0.300277 -0.175931 0.181628 153 0 76
-0.437642 0.513149 -0.403664 153 76 0
-0.617711 0.271124 -0.338816 76 0 153
-0.428747 0.382697 -0.368711 153 76 0
0.533812 -0.169523 0.147199 153 0 76
0.306554 -0.169523 0.598168 153 0 76
0.041415 0.371730 -0.392780 76 0 153
-0.548968 -0.222156 0.443930 153 0 76
0.253803 -0.169523 0.137884 0 127 127
-0.180479 -0.081838 -0.271252 76 0 153
0.256787 0.145837 -0.305248 153 76 0
-0.529755 -0.169523 -0.118128 153 0 76
-0.423296 0.476286 -0.420794 76 0 153
-0.604786 -0.222156 0.386854 153 0 76
-0.597957 0.068270 -0.311472 76 0 153
0.455126 0.479468 -0.421647 76 0 153
0.269944 0.582343 -0.449211 76 0 153
0.635633 -0.210070 0.087321 153 0 76
-0.643670 -0.217417 0.279491 153 0 76
-0.443647 -0.175931 0.126721 0 127 127
-0.476490 -0.222156 0.277572 153 0 76
-0.444500 -0.133009 -0.230534 153 76 0
0.203822 -0.216761 -0.166141 153 0 76
0.534453 -0.169523 0.286060 153 0 76
0.558447 0.071235 -0.312266 76 0 153
0.379069 -0.112937 -0.235913 153 76 0
-0.321878 -0.222156 -0.129653 153 0 76
-0.106482 -0.222156 0.120137 153 0 76
0.085218 0.148621 -0.333000 76 0 153
0.503550 -0.169523 0.270817 153 0 76
-0.553438 0.450597 -0.386904 153 76 0
-0.234670 -0.015482 -0.289031 76 0 153
0.384272 -0.175931 0.081958 0 127 127
0.493938 -0.222156 0.358659 153 0 76
0.296439 0.544544 -0.439083 76 0 153
-0.497413 0.043126 -0.277727 153 76 0
-0.009276 -0.169523 -0.010288 153 0 76
0.180691 -0.222156 0.174144 153 0 76
0.453045 -0.222156 -0.015736 153 0 76
-0.106635 -0.222156 0.338021 153 0 76
0.509412 0.279977 -0.341188 153 76 0
-0.626226 -0.184768 -0.216666 76 0 153
0.620217 -0.217028 0.045401 153 0 76
0.122773 -0.222156 0.409556 153 0 76
0.376314 0.127640 -0.300372 153 76 0
0.493783 -0.122305 -0.260410 76 0 153
0.248620 -0.205081 0.696113 153 0 76
0.437897 -0.169890 -0.220653 76 0 153
0.172201 -0.170439 0.587288 153 0 76
0.022776 -0.222156 0.453584 153 0 76
-0.180805 -0.175931 0.184305 0 127 127
-0.085465 -0.169523 0.247007 0 127 127
0.102675 -0.222156 0.100596 153 0 76
0.479231 0.228940 -0.354521 76 0 153
-0.242826 -0.222156 0.134611 153 0 76
0.376658 0.304413 -0.374743 76 0 153
-0.628257 0.191515 -0.342372 76 0 153
-0.352064 -0.176951 -0.201953 127 0 127
-0.205108 0.502324 -0.427770 76 0 153
-0.376301 -0.175931 0.137216 0 127 127
-0.178213 0.494608 -0.398696 153 76 0
0.449267 -0.222156 -0.076611 153 0 76
0.580919 -0.169523 0.345575 153 0 76
-0.451386 -0.169523 0.569389 153 0 76
0.312033 -0.210337 -0.217083 76 0 153
-0.117136 0.180277 -0.341482 76 0 153
-0.557574 -0.111497 -0.236298 153 76 0
0.234918 -0.175931 -0.034861 0 127 127
-0.084261 -0.169523 0.442956 76 0 153
-0.652868 -0.169523 0.228031 153 0 76
0.139101 0.619652 -0.453948 76 0 153
0.185371 -0.175931 0.257478 153 0 76
0.394493 -0.222156 -0.002113 153 0 76
0.373927 0.564723 -0.444490 76 0 153
-0.520354 0.629092 -0.453693 76 0 153
0.517370 0.118980 -0.298052 153 76 0
-0.395295 0.099597 -0.292858 153 76 0
-0.322179 -0.149027 -0.226243 76 0 153
-0.009275 -0.222156 0.425497 153 0 76
-0.569217 -0.194142 -0.233773 76 0 153
0.347984 -0.169523 0.678458 153 0 76
-0.108475 0.390315 -0.397759 76 0 153
0.414339 -0.222156 0.102675 153 0 76
0.149047 -0.036443 -0.256408 153 76 0
0.237468 0.443098 -0.411902 76 0 153
-0.092418 -0.175835 -0.031473 153 0 76
0.285301 -0.208263 0.691731 153 0 76
0.463811 0.199278 -0.346574 76 0 153
0.045697 -0.169523 0.380349 153 0 76
0.633489 -0.169523 0.193534 153 0 76
-0.010893 -0.222156 0.091462 153 0 76
0.423941 0.618785 -0.431968 76 0 153
-0.059416 -0.222156 -0.076125 153 0 76
-0.326680 0.476601 -0.420878 76 0 153
-0.076321 -0.169523 0.374397 153 0 76
-0.485658 -0.169523 -0.072783 0 127 127
0.617197 0.558651 -0.415855 76 0 153
0.114360 -0.169523 0.205239 0 127 127
0.383066 -0.169523 0.351863 153 0 76
-0.199847 -0.206286 -0.198705 127 0 127
-0.087968 -0.173474 0.303631 153 0 76
0.639671 -0.206639 0.607546 153 0 76
-0.118138 0.308011 -0.348700 153 76 0
0.038042 0.539064 -0.437615 76 0 153
0.107580 -0.222156 0.253173 153 0 76
0.008734 -0.169523 0.567426 76 0 153
-0.366065 0.270699 -0.365710 76 0 153
0.436867 -0.140830 -0.228439 76 0 153
-0.437909 0.569438 -0.418746 153 76 0
-0.400185 -0.222156 0.149476 153 0 76
-0.493973 0.318590 -0.378542 76 0 153
0.383281 0.139354 -0.330518 76 0 153
0.468183 -0.222156 0.287795 153 0 76
-0.234628 -0.208267 -0.183323 153 0 76
-0.239337 -0.169523 0.388851 153 0 76
0.308132 -0.175931 0.280958 0 127 127
-0.071173 0.338241 -0.383807 76 0 153
-0.500720 -0.222156 0.429971 153 0 76
0.146475 0.082985 -0.288407 153 76 0
-0.098842 -0.222156 0.308217 153 0 76
0.051731 -0.028368 -0.285579 76 0 153
-0.007021 -0.169523 0.337353 153 0 76
0.224320 -0.180316 -0.240836 76 0 153
-0.286249 -0.169523 0.099281 0 127 127
-0.319431 -0.169523 0.493834 153 0 76
-0.403240 0.527747 -0.434582 76 0 153
0.033409 -0.222156 0.074257 153 0 76
0.027757 0.576152 -0.420545 153 76 0
-0.375503 0.396954 -0.399538 76 0 153
0.610766 0.404121 -0.374451 76 0 153
-0.586923 -0.169523 0.105244 153 0 76
-0.097216 0.324755 -0.380193 76 0 153
0.562255 -0.129851 -0.231381 153 76 0
0.390050 0.533713 -0.436181 76 0 153
-0.004293 -0.178690 0.686716 153 0 76
0.426754 0.194306 -0.318234 153 76 0
0.144214 0.292701 -0.344598 153 76 0
-0.348194 -0.222156 0.179701 153 0 76
0.530032 0.483034 -0.422602 76 0 153
-0.478731 0.545150 -0.412238 153 76 0
-0.127463 0.319194 -0.378703 76 0 153
0.504622 -0.222156 0.148408 153 0 76
0.246625 -0.222156 0.179859 153 0 76
-0.290942 -0.169523 0.329849 153 0 76
-0.360076 0.070256 -0.312004 76 0 153
-0.493626 -0.222156 0.346542 153 0 76
0.585854 0.648275 -0.448287 76 0 153
-0.520723 -0.222156 0.387990 153 0 76
0.283340 -0.169523 0.182513 0 127 127
0.001414 -0.022370 -0.260179 153 76 0
0.618574 0.369696 -0.365228 76 0 153
-0.488093 -0.222156 0.400878 153 0 76
-0.524835 -0.169523 0.459837 153 0 76
-0.490426 -0.173702 0.218212 0 127 127
0.643932 -0.200790 0.303192 153 0 76
0.324135 -0.130360 -0.231244 153 76 0
0.120813 0.287220 -0.343129 153 76 0
-0.624398 0.326452 -0.353641 76 0 153
0.537151 0.011650 -0.296301 76 0 153
0.205873 0.086594 -0.289374 153 76 0
0.186448 -0.004927 -0.291860 76 0 153
0.114418 0.397195 -0.399603 76 0 153
0.411933 -0.169523 0.680535 153 0 76
-0.283557 0.415051 -0.404387 76 0 153
-0.393830 0.452581 -0.414443 76 0 153
-0.171441 -0.222156 -0.048543 153 0 76
-0.305166 -0.200727 -0.160629 153 0 76
0.154332 -0.222156 -0.096271 153 0 76
-0.274005 -0.216225 -0.169482 153 0 76
-0.495125 -0.216771 0.673005 153 0 76
0.546690 -0.169523 0.669638 153 0 76
0.587768 0.254074 -0.334248 76 0 153
0.420863 -0.222156 0.476200 153 0 76
-0.543197 -0.188815 -0.215582 76 0 153
-0.299130 -0.204781 -0.223940 76 0 153
0.438566 0.142599 -0.304380 153 76 0
0.099531 -0.222156 0.025148 153 0 76
0.558940 -0.169523 0.419899 153 0 76
0.061993 -0.222156 0.490918 153 0 76
-0.329373 -0.208242 -0.206008 76 0 153
0.074924 0.433852 -0.409425 76 0 153
0.155039 -0.222156 0.572089 153 0 76
-0.433321 -0.222156 0.487102 153 0 76
-0.432891 0.095655 -0.291802 153 76 0
-0.557926 0.339961 -0.357261 153 76 0
-0.137773 0.062453 -0.309913 76 0 153
-0.201498 -0.169523 0.406041 153 0 76
-0.186932 0.352056 -0.387508 76 0 153
-0.594897 0.591118 -0.424555 76 0 153
-0.513324 0.146603 -0.332460 76 0 153
0.537679 -0.014028 -0.262414 153 76 0
-0.138122 -0.126047 -0.259407 76 0 153
0.343163 -0.169523 0.467040 153 0 76
0.101010 0.570386 -0.446007 76 0 153
-0.590019 -0.139643 -0.255764 76 0 153
-0.005373 -0.222156 0.477966 153 0 76
-0.332501 -0.169523 0.360568 153 0 76
0.222138 -0.222156 0.230858 153 0 76
-0.453903 -0.207424 -0.202953 76 0 153
0.423563 -0.182635 0.699700 153 0 76
0.538087 -0.222156 0.248040 153 0 76
-0.050150 -0.060182 -0.250048 153 76 0
-0.585274 -0.222156 0.552839 153 0 76
-0.008119 -0.222156 0.592154 153 0 76
-0.083263 0.138716 -0.303339 153 76 0
0.134465 -0.044103 -0.281363 76 0 153
-0.362647 0.492676 -0.425186 76 0 153
-0.425259 -0.081192 -0.271425 76 0 153
-0.562253 0.073136 -0.312775 76 0 153
0.348137 -0.200501 -0.228133 76 0 153
-0.586661 -0.169523 0.003915 153 0 76
-0.305349 -0.222156 0.570210 153 0 76
0.315907 -0.222156 0.007456 153 0 76
-0.656863 0.098089 -0.292454 76 0 153
-0.138444 -0.169523 -0.015338 0 127 127
0.412295 -0.219437 -0.149481 153 0 76
0.487818 0.574153 -0.447016 76 0 153
0.329058 0.087107 -0.316519 76 0 153
0.282400 0.241573 -0.357906 76 0 153
0.626624 0.491269 -0.397801 76 0 153
0.026351 -0.169523 0.351780 153 0 76
0.607323 0.357241 -0.361890 76 0 153
-0.087508 -0.219265 0.657472 153 0 76
-0.095209 -0.175931 0.134417 0 127 127
-0.405952 0.164268 -0.337193 76 0 153
-0.586938 -0.169523 0.613533 153 0 76
0.039257 0.169187 -0.338511 76 0 153
-0.147400 0.207871 -0.321869 153 76 0
-0.377147 0.382753 -0.368726 153 76 0
0.629808 -0.169523 0.311830 153 0 76
0.621932 0.164908 -0.310357 76 0 153
0.167862 -0.175931 0.093376 0 127 127
0.308095 0.113130 -0.323491 76 0 153
-0.521714 -0.114700 -0.262447 76 0 153
0.358913 -0.178472 -0.241662 76 0 153
0.083241 0.383227 -0.395860 76 0 153
0.192993 -0.222156 0.390607 153 0 76
-0.543247 -0.088002 -0.242593 153 76 0
-0.324796 0.129485 -0.300866 153 76 0
0.628227 0.306575 -0.367202 76 0 153
-0.518273 -0.222156 0.045569 153 0 76
0.200041 0.329062 -0.381347 76 0 153
-0.087309 -0.222156 0.409078 153 0 76
-0.008417 -0.175931 0.270214 153 0 76
0.139405 0.645315 -0.437181 76 0 153
-0.123640 -0.169523 0.618641 76 0 153
-0.459796 0.055472 -0.281035 153 76 0
-0.052660 0.085583 -0.316110 76 0 153
0.008268 0.013083 -0.296685 76 0 153
-0.602815 0.216880 -0.351290 76 0 153
0.641924 0.076509 -0.295336 76 0 153
-0.648161 -0.031282 -0.279079 76 0 153
0.174248 -0.175931 0.001611 0 127 127
0.412291 0.103855 -0.321006 76 0 153
-0.242013 -0.169523 0.124008 0 127 127
0.548117 -0.048908 -0.280075 76 0 153
0.585291 -0.169523 -0.050250 153 0 76
0.334601 0.057394 -0.308558 76 0 153
-0.618930 -0.162845 -0.246125 76 0 153
0.178360 0.498860 -0.399835 153 76 0
-0.570056 0.106299 -0.321661 76 0 153
0.379577 0.442682 -0.411790 76 0 153
-0.569293 -0.068811 -0.247736 153 76 0
-0.585842 -0.222156 0.254052 153 0 76
-0.199395 -0.222156 -0.066291 153 0 76
-0.451252 0.635691 -0.436497 76 0 153
0.027631 -0.169523 0.267912 0 127 127
0.524113 -0.222156 0.356192 153 0 76
0.373457 0.425283 -0.380121 153 76 0
-0.555270 0.195764 -0.345632 76 0 153
-0.601736 0.372427 -0.365959 153 76 0
-0.479954 -0.023078 -0.259989 153 76 0
0.350624 -0.222156 0.165264 153 0 76
-0.533165 -0.058199 -0.250579 153 76 0
-0.011430 -0.089884 -0.242089 153 76 0
0.573941 -0.222156 -0.077161 153 0 76
0.380382 0.473109 -0.419943 76 0 153
0.202466 -0.176444 -0.200062 76 0 153
-0.069384 -0.222156 0.331257 153 0 76
-0.005856 0.198291 -0.319302 153 76 0
0.350519 0.136672 -0.302792 153 76 0
-0.419131 0.036921 -0.303072 76 0 153
0.558665 -0.222156 -0.030257 153 0 76
-0.480029 -0.175138 0.297835 153 0 76
0.641819 0.494580 -0.407458 76 0 153
-0.663912 -0.208045 0.390674 153 0 76
0.403748 -0.222156 -0.059993 153 0 76
-0.285013 0.192183 -0.317665 153 76 0
0.198403 -0.169523 0.419599 153 0 76
-0.653277 0.467216 -0.391357 76 0 153
-0.370052 -0.160898 -0.249531 76 0 153
-0.173439 -0.175931 -0.064563 0 127 127
-0.242965 0.075412 -0.313385 76 0 153
0.312803 -0.169523 0.417501 153 0 76
0.080456 -0.222156 0.602610 153 0 76
0.410058 0.348376 -0.359515 153 76 0
0.265495 0.293548 -0.344825 153 76 0
-0.442024 -0.175931 0.016123 0 127 127
0.193508 -0.175931 0.007522 0 127 127
-0.167858 -0.222156 0.497000 153 0 76
0.219447 -0.222156 0.409871 153 0 76
0.417836 -0.012773 -0.262750 153 76 0
0.515414 0.614750 -0.430887 76 0 153
-0.669611 -0.188375 -0.109843 153 0 76
-0.432263 0.291630 -0.371318 76 0 153
0.374871 0.237622 -0.356847 76 0 153
-0.216703 0.041003 -0.277158 153 76 0
0.411141 0.187219 -0.316335 153 76 0
-0.366461 -0.074630 -0.273183 76 0 153
0.266815 -0.222156 0.528846 153 0 76
0.429095 -0.169523 0.503029 153 0 76
0.464177 0.282980 -0.369000 76 0 153
-0.355401 -0.169523 0.230945 153 0 76
0.122980 -0.169523 0.446148 76 0 153
-0.286252 -0.053164 -0.278935 76 0 153
0.365606 -0.221193 0.645467 153 0 76
-0.279207 -0.222156 0.078481 153 0 76
-0.349895 0.314000 -0.377312 76 0 153
-0.075149 0.390210 -0.397731 76 0 153
0.411838 -0.209693 0.689544 153 0 76
-0.349898 0.586826 -0.423405 153 76 0
0.634612 0.392762 -0.371408 76 0 153
0.004907 -0.222156 0.009167 153 0 76
-0.317809 0.400675 -0.373528 153 76 0
-0.508237 -0.193986 0.699700 153 0 76
0.318417 -0.169523 0.688812 153 0 76
0.453083 -0.222156 0.419435 153 0 76
-0.124550 -0.030747 -0.257934 153 76 0
-0.065796 -0.169523 0.518974 76 0 153
0.067574 0.564907 -0.444539 76 0 153
0.275390 0.409943 -0.376011 153 76 0
0.569884 -0.219149 0.655826 153 0 76
0.444192 0.615119 -0.430985 76 0 153
-0.236677 -0.222156 0.217273 153 0 76
-0.363444 -0.169523 0.404770 153 0 76
